ply
format ascii 1.0
element vertex 1093
property float x
property float y
property float z
property uchar red
property uchar green
property uchar blue
property uchar alpha
end_header
6.342168 -2.073282 52.691920 138 75 63 255
-3.526774 4.194382 47.455490 124 66 56 255
-8.709961 -0.801912 42.593620 149 145 138 255
6.147921 -1.633553 52.674210 136 73 62 255
3.397948 1.853202 51.664750 127 62 49 255
-5.389571 -9.873712 42.037660 102 58 47 255
6.595097 -2.412039 52.577980 135 71 60 255
6.556320 -9.795661 50.343630 117 69 54 255
-3.785305 4.068519 47.342290 123 67 55 255
-5.979358 3.085365 45.604630 131 70 61 255
-8.797749 -1.181474 42.399450 148 145 137 255
-6.118980 2.983073 45.505130 131 71 61 255
-4.027278 4.017606 47.116570 124 67 56 255
6.292655 -10.096000 50.021820 115 67 55 255
-6.185943 2.800565 45.692600 131 70 61 255
6.925631 -3.041842 52.566680 138 80 69 255
-4.335765 3.915277 46.919600 126 68 58 255
1.727050 3.122499 50.884490 128 66 54 255
1.474435 3.249682 50.831000 127 65 52 255
-8.836874 -1.914394 42.190080 147 143 134 255
-6.459086 2.782871 45.188530 131 71 62 255
-6.376106 -8.672877 41.879950 102 51 39 255
7.068201 -3.466562 52.448590 137 79 70 255
-8.820572 -3.169433 41.800300 121 80 69 255
-4.651822 3.857553 46.627940 124 65 53 255
7.390453 -4.526581 52.341450 133 84 75 255
-8.770832 -3.350280 41.811260 108 65 56 255
-7.070204 -7.897011 41.626280 109 59 51 255
-7.245312 -7.656454 41.573300 107 61 51 255
7.183832 -3.892267 52.412930 133 76 66 255
-7.340582 -7.491058 41.473640 107 62 51 255
-8.714223 -3.735259 41.738640 106 55 45 255
-4.970286 3.753756 46.385750 131 74 65 255
-6.831791 2.561163 44.879990 131 67 59 255
-6.879033 -8.146080 41.767250 108 56 46 255
1.268550 3.359376 50.757480 128 63 52 255
7.415553 -4.694651 52.359050 132 86 77 255
-6.946927 2.479434 44.754140 125 60 50 255
5.125007 -11.157070 48.837530 113 76 66 255
-3.106266 -11.518280 43.433520 108 60 46 255
4.975339 -11.260320 48.756110 113 76 66 255
0.344552 -12.786450 45.365530 112 53 40 255
-8.594130 -4.348493 41.653340 106 54 44 255
7.530733 -5.178525 52.215230 126 81 70 255
0.059701 -12.720770 44.981060 107 49 34 255
0.424056 3.945205 50.093640 135 64 53 255
-1.984743 -12.017390 44.105770 102 49 34 255
0.248898 4.007334 50.015130 134 64 53 255
4.611462 -11.487610 48.446090 112 74 63 255
-5.757980 3.174876 45.872300 133 72 62 255
-2.335488 -11.839060 43.679560 103 50 36 255
-2.632645 -11.752410 43.535260 101 48 33 255
-7.555301 1.715556 44.195840 126 62 53 255
4.532555 0.846753 51.931960 128 65 50 255
-8.462786 -5.118062 41.498930 107 56 47 255
7.384757 -6.834794 51.845220 119 65 51 255
-0.424137 4.061914 49.669080 127 63 52 255
-0.278966 -12.626170 44.672750 105 48 32 255
5.059827 0.009899 52.336500 136 69 57 255
3.802049 -12.064960 47.709850 114 81 72 255
7.407487 -7.208698 51.610440 124 73 58 255
3.670290 -12.124880 47.645930 118 83 71 255
7.406010 -7.294328 51.493540 123 70 54 255
-3.467714 -11.217400 43.167660 105 57 42 255
-0.587631 -12.523560 44.696660 111 53 38 255
-3.828601 -10.932500 42.869390 104 59 45 255
5.772274 -0.561002 52.329730 134 65 51 255
-8.321404 -5.571300 41.474030 109 61 52 255
-8.264449 -5.750379 41.585100 104 55 46 255
3.165349 -12.285450 47.379460 106 58 47 255
-1.766904 4.297427 48.781050 128 62 49 255
5.939161 -0.821933 52.402460 132 70 57 255
5.959401 -0.947534 52.471090 135 72 59 255
3.887886 1.376047 51.883800 134 70 57 255
-4.407010 -10.684920 42.922970 104 58 45 255
-4.631721 -10.542320 42.800790 101 55 41 255
3.357952 1.628000 52.002450 128 64 51 255
-8.831454 -2.389973 42.236950 150 148 137 255
3.678285 1.487178 51.919740 131 68 55 255
-5.026309 -10.242240 42.400720 105 59 43 255
2.552015 -12.457710 46.865430 107 61 49 255
-8.860737 -2.499760 42.022240 155 153 139 255
-8.052744 0.955837 43.758880 117 53 41 255
-2.312877 4.394946 48.436590 128 62 47 255
-5.102243 -10.174330 42.286890 106 62 47 255
-8.877102 -2.778563 41.937420 151 149 135 255
-7.952197 -6.452310 41.447060 105 59 50 255
-2.626374 4.414486 48.223750 126 64 53 255
-8.879694 -2.928594 41.907970 119 89 80 255
-7.846457 -6.680441 41.452420 107 58 48 255
-8.865313 -3.083822 41.954140 107 69 58 255
-2.972595 4.358189 47.880110 124 66 54 255
-7.525043 -7.234490 41.635260 103 55 44 255
-8.272625 0.356736 43.326030 108 64 55 255
-8.298717 0.236713 43.252020 98 80 71 255
-8.338318 0.140440 43.032760 123 105 100 255
-8.302551 -0.059115 43.226630 144 137 132 255
-8.389703 -0.108233 42.980830 143 133 127 255
-8.481295 -0.262895 42.896540 156 152 144 255
7.067818 -8.416562 50.987890 120 65 48 255
7.038250 -8.516178 50.868740 121 65 50 255
6.952428 -8.767750 50.834080 124 68 52 255
-6.659354 -8.369242 41.810440 106 53 40 255
6.901659 -8.942533 50.677580 118 62 46 255
6.827861 -9.197308 50.468110 123 66 52 255
1.557271 -12.648040 46.238540 109 58 45 255
-8.690707 -0.983390 42.839730 147 145 138 255
-8.661867 -0.832834 42.880940 147 143 138 255
-8.744964 -1.156036 42.649170 148 146 139 255
6.696435 -9.534302 50.508270 114 60 44 255
-3.969933 3.950126 47.319130 123 66 56 255
-6.103862 -9.030697 42.120510 103 50 38 255
1.235900 -12.750330 46.143250 105 54 41 255
6.616832 -9.702077 50.394080 113 61 46 255
-8.783717 -1.394008 42.500330 147 145 137 255
2.535573 2.573481 51.405990 132 61 49 255
-4.169346 3.841757 47.266960 123 67 56 255
2.416800 2.672897 51.314670 131 65 54 255
0.919529 -12.793590 45.841950 106 54 41 255
-5.563733 -9.706242 42.276420 107 60 50 255
6.410587 -2.261388 52.728000 133 70 58 255
-5.270759 -10.070380 42.327540 108 65 54 255
-5.401347 -9.920125 42.300710 109 64 52 255
-8.770645 -1.797519 42.517300 146 143 135 255
-6.686185 2.552313 45.179080 132 71 62 255
0.605890 -12.843180 45.685540 106 50 38 255
-4.601451 3.779613 46.846540 123 65 52 255
0.010513 -12.751180 45.118870 105 49 34 255
2.222584 2.763766 51.246190 130 67 55 255
-6.361795 -8.742509 42.067640 101 49 37 255
-0.148286 -12.719810 45.001110 107 51 36 255
-0.234649 -12.676420 44.860180 107 50 35 255
-7.070502 2.267856 44.761520 126 61 51 255
6.047448 -10.364070 49.864360 113 69 56 255
-4.870276 3.691866 46.669650 129 72 62 255
-1.030928 -12.342410 44.573680 106 50 33 255
-8.843882 -3.274275 42.115190 113 76 66 255
-7.348524 -7.546391 41.759230 108 61 51 255
-7.244453 2.024473 44.637150 127 63 54 255
-8.784755 -3.379828 41.968140 114 75 65 255
-5.070201 3.574405 46.551010 124 68 58 255
-8.741549 -3.539116 41.946220 99 51 40 255
-0.374033 -12.656660 44.955290 109 52 36 255
-7.575385 1.564345 44.405550 126 63 53 255
-7.015477 -8.060638 41.947120 112 60 51 255
7.260428 -4.234463 52.447340 136 81 71 255
5.741098 -10.707460 49.653460 108 67 55 255
-5.277107 3.479432 46.291420 126 68 59 255
-8.408418 -5.345077 41.646850 109 60 51 255
-8.649549 -4.074187 41.851420 105 54 44 255
-1.676499 -12.114440 44.303650 103 49 33 255
-8.306682 -5.665309 41.692780 107 60 50 255
0.620838 3.793228 50.294220 133 64 51 255
5.597578 -10.844990 49.517800 111 73 62 255
-8.558927 -4.518564 41.806070 106 54 43 255
5.356818 -11.053380 49.365990 113 74 64 255
-8.145325 -6.028115 41.594770 106 57 47 255
-2.666910 -11.844790 43.821240 102 49 34 255
-5.623311 3.201953 46.085880 127 69 59 255
-2.787762 -11.788440 43.725730 103 49 34 255
-7.902378 1.141848 44.128230 124 53 43 255
5.281637 -11.097280 49.207080 114 74 65 255
-8.038683 -6.309328 41.599030 106 59 49 255
-8.466420 -5.084265 41.785340 106 54 43 255
-7.977564 1.061756 43.946980 118 50 38 255
-7.952645 -6.559235 41.701690 109 60 50 255
0.307965 3.873473 50.232020 133 62 51 255
5.137313 -11.186240 49.048780 113 75 66 255
-3.788231 -11.084420 43.237790 106 60 45 255
-3.512994 -11.277210 43.375540 102 53 40 255
-3.374250 -11.406240 43.506760 106 57 44 255
7.392686 -4.971196 52.517930 134 89 82 255
0.041427 3.956764 50.064900 131 64 53 255
-7.682696 -6.995548 41.615800 105 55 45 255
-8.111438 0.795498 43.675800 118 55 44 255
7.465608 -5.076746 52.372520 129 84 75 255
-7.501981 -7.309902 41.806670 108 59 48 255
-8.191609 0.571439 43.524480 119 57 46 255
-4.088328 -10.941080 43.231480 105 56 42 255
4.272153 0.860280 52.177380 133 66 53 255
4.647293 -11.503760 48.699390 111 73 64 255
7.478410 -5.684313 52.243030 122 67 53 255
7.226405 -7.850877 51.483980 118 63 46 255
7.167379 -8.085617 51.259680 120 65 49 255
-8.274505 0.051547 43.319140 124 111 101 255
-0.780800 4.111321 49.442980 130 66 54 255
7.109228 -8.240535 51.266610 126 70 54 255
7.437139 -6.295019 51.902940 121 64 50 255
4.484845 0.606929 52.224020 133 68 54 255
4.423482 -11.630530 48.374590 114 74 64 255
-8.329777 -0.122246 43.213800 141 132 127 255
-8.394675 -0.241630 43.213260 144 135 129 255
-8.433232 -0.335998 43.217590 151 143 137 255
-1.247803 4.140343 49.237110 129 65 54 255
-5.178609 -10.164470 42.413550 107 63 50 255
4.106768 -11.882490 48.255170 98 75 64 255
-8.515765 -0.499481 43.079270 151 145 139 255
3.874859 -12.047590 47.896990 114 77 67 255
6.807806 -9.212325 50.671480 124 67 53 255
5.807092 -0.754537 52.487460 128 64 48 255
-2.821613 4.259029 48.292970 124 66 54 255
3.304263 -12.261220 47.530570 107 62 51 255
-2.937621 4.293013 48.060220 124 66 54 255
2.901804 -12.393000 47.324030 103 57 44 255
2.755734 -12.386310 46.983470 107 61 48 255
2.618863 -12.496500 47.107840 105 59 46 255
2.144710 -12.566740 46.673080 103 55 42 255
-3.410282 4.090271 47.819540 122 64 53 255
-3.471918 4.142860 47.631070 125 67 56 255
1.719125 -12.646340 46.433470 102 54 41 255
2.847335 2.110907 51.819750 130 62 49 255
-6.637455 -8.487201 42.112390 106 54 40 255
-5.967864 2.971519 45.826910 132 71 61 255
6.712792 -9.425735 50.813690 123 64 50 255
2.598783 2.479623 51.512350 134 63 49 255
-6.112261 -9.094291 42.371320 102 50 38 255
-5.890710 -9.335758 42.369040 104 53 41 255
6.614300 -9.690817 50.608700 114 60 45 255
6.140080 -1.818327 52.802640 136 73 61 255
-8.709834 -1.240258 42.817670 147 146 139 255
6.217059 -2.003987 52.827890 135 72 60 255
-6.404640 2.636346 45.562440 132 71 62 255
2.721375 2.259568 51.728070 131 62 48 255
2.991863 2.003315 51.829050 127 62 49 255
-5.389705 -9.989303 42.523120 107 66 54 255
-5.260031 -10.139430 42.548560 112 71 59 255
6.446534 -9.930927 50.296240 118 70 57 255
1.019420 -12.821050 46.078750 102 51 38 255
-4.434500 3.693217 47.229110 123 64 53 255
-4.537698 3.719442 47.046650 124 65 54 255
-8.762903 -2.042563 42.548310 151 147 139 255
-6.906222 2.351293 45.079460 128 62 51 255
1.729322 2.972111 51.180480 129 69 56 255
1.026774 3.486642 50.654520 130 64 53 255
-7.243181 -7.733089 41.847980 111 63 53 255
-4.849593 3.644927 46.791130 127 71 61 255
0.794343 3.589732 50.585580 133 64 52 255
0.531309 -12.895810 45.838730 108 51 38 255
-7.128892 -7.907320 41.891700 112 62 52 255
-7.028363 2.208658 45.004040 126 60 51 255
0.545597 3.737677 50.405780 133 64 52 255
0.067356 -12.809910 45.418730 104 46 32 255
6.921991 -3.261348 52.691200 137 79 67 255
-8.816664 -2.494453 42.344960 152 150 138 255
-5.016498 3.529962 46.753890 126 70 59 255
-0.098330 -12.805440 45.422110 104 47 33 255
-3.158944 -11.600910 43.689400 96 48 35 255
-1.342723 -12.276280 44.625840 104 49 33 255
-0.233163 -12.744460 45.195950 104 49 33 255
-1.598891 -12.207460 44.594730 104 48 32 255
-5.205870 3.414463 46.579440 125 68 58 255
4.934298 -11.342430 49.036720 112 77 66 255
-2.353746 -11.938240 44.036280 102 49 33 255
-0.981075 -12.431330 44.852290 104 49 33 255
4.789508 -11.421570 48.859710 111 74 64 255
-8.851962 -2.985700 42.208560 143 137 130 255
-0.196134 3.956899 49.963530 128 63 53 255
7.012621 -3.723631 52.689410 134 79 69 255
-7.799880 1.299789 44.187740 128 58 50 255
-5.426304 3.217999 46.480380 125 69 59 255
4.433314 -11.644880 48.572680 111 73 63 255
-8.859779 -3.140905 42.158090 110 67 61 255
-2.885042 -11.741880 43.700850 99 46 33 255
-0.577824 -12.624110 45.123620 107 48 32 255
4.278742 -11.754140 48.408410 109 74 64 255
-8.739793 -3.559630 42.140690 103 57 47 255
-0.788999 4.018402 49.604660 130 67 55 255
-8.816930 -3.398856 42.262150 119 81 70 255
-8.110011 0.656493 43.862730 119 55 44 255
7.388198 -5.255676 52.596870 133 89 79 255
-8.370667 -5.490568 41.811120 110 61 53 255
-8.440948 -5.227768 41.809220 104 52 42 255
-8.713290 -3.705826 42.086270 104 52 42 255
3.834141 -12.106620 48.018680 108 84 77 255
-8.691226 -3.866763 42.137620 102 52 41 255
3.640548 -12.229550 47.984440 114 86 78 255
7.489612 -5.493867 52.302710 122 66 52 255
-8.663664 -4.036653 42.182220 105 52 42 255
-8.594569 -4.349509 41.994920 105 54 43 255
3.475352 -12.284880 47.904210 109 68 58 255
-8.247671 -5.850115 41.800860 101 50 41 255
-1.828825 4.172007 48.977060 129 62 49 255
-4.404856 -10.772710 43.169820 104 58 45 255
-8.130150 -6.136310 41.783290 105 56 45 255
-8.279461 -0.117097 43.404880 137 121 119 255
3.005599 -12.337260 47.312980 106 59 46 255
4.503304 0.302426 52.528930 130 63 50 255
-4.745734 -10.452540 42.678680 100 53 40 255
-8.412949 -0.386068 43.414440 152 143 138 255
-5.135421 -10.251580 42.591750 107 63 50 255
7.380693 -6.234102 52.208890 122 68 53 255
-8.505645 -4.795623 41.988190 105 53 43 255
-2.430236 4.311791 48.537940 127 62 50 255
5.496849 -0.624946 52.614330 133 65 53 255
2.460443 -12.547780 47.036820 104 56 44 255
-2.600068 4.291437 48.471890 129 64 54 255
-2.780571 4.194634 48.472690 126 67 56 255
-7.855200 -6.819693 41.986990 106 57 46 255
-8.601747 -0.772168 43.128300 148 144 138 255
5.786589 -0.893093 52.631280 132 67 53 255
-2.969025 4.140650 48.301740 126 68 56 255
-3.097209 4.167925 48.079980 124 66 53 255
5.880774 -1.243643 52.787040 134 69 58 255
7.361438 -7.224440 51.800400 124 75 59 255
-3.361185 4.036524 47.989650 123 66 54 255
7.336385 -7.398986 51.752290 118 68 52 255
-3.603029 3.976505 47.783390 123 65 54 255
7.296123 -7.568352 51.718130 122 68 52 255
4.105293 0.969230 52.209710 131 65 51 255
-3.900129 3.902047 47.508070 121 65 54 255
7.016411 -8.509350 51.146800 121 66 50 255
5.954076 -1.326476 52.739170 136 73 61 255
-6.886388 -8.266795 42.165130 112 59 46 255
6.892753 -8.887992 50.986890 122 67 51 255
6.789010 -9.191036 50.969820 125 68 53 255
1.943125 -12.674880 46.833000 102 52 39 255
-5.936372 2.909148 46.009310 130 68 59 255
-8.606190 -0.979781 43.237020 148 146 140 255
-7.114740 -8.000357 42.181630 114 64 53 255
-6.999575 -8.166397 42.235000 112 61 50 255
3.155601 1.791255 51.975900 128 64 50 255
6.612080 -9.641064 50.908170 117 60 46 255
-6.445844 -8.739986 42.325940 103 52 39 255
-6.268519 -8.948918 42.424630 105 52 40 255
-8.702999 -1.758881 42.841260 149 147 139 255
-4.070646 3.717170 47.656500 122 65 52 255
-4.165649 3.728906 47.499370 124 64 53 255
6.475226 -9.904375 50.570420 116 67 53 255
1.841390 2.873680 51.286830 130 68 56 255
1.515949 3.046255 51.171660 131 68 55 255
-6.598103 2.438196 45.571940 129 68 59 255
6.824709 -2.961568 52.688730 134 76 67 255
6.270639 -10.143930 50.435260 116 69 56 255
1.351616 3.218707 50.971220 130 66 53 255
6.465075 -2.569405 52.883290 133 69 57 255
-6.708171 2.424341 45.370540 131 68 58 255
0.416896 -12.919740 45.904770 109 53 38 255
-6.836932 2.298817 45.335360 129 64 54 255
0.651191 3.567904 50.663170 135 66 56 255
-8.736898 -2.188798 42.734800 149 146 136 255
6.832079 -3.133920 52.799990 137 78 69 255
5.986510 -10.443170 50.058930 110 67 54 255
0.302024 3.682176 50.536820 132 61 50 255
-4.798501 3.585448 46.978630 124 67 57 255
6.864127 -3.474844 52.913110 135 78 69 255
-0.326931 -12.766620 45.409470 104 48 33 255
1.059728 3.389206 50.821460 131 63 51 255
7.034072 -4.179129 52.870640 134 78 69 255
-5.748902 -9.514492 42.422890 106 53 41 255
-8.793031 -2.626308 42.532240 152 149 138 255
7.109944 -4.420394 52.850190 130 76 66 255
-7.176090 1.884133 45.107810 127 61 51 255
-4.977685 3.470472 46.941250 126 71 60 255
7.266653 -4.699240 52.676120 133 82 72 255
5.736604 -10.714630 49.879480 111 68 56 255
-7.353188 1.663494 44.935190 127 62 52 255
6.953650 -3.915818 52.905160 134 78 68 255
0.036799 3.679990 50.561410 130 63 51 255
5.589851 -10.858650 49.790720 110 70 58 255
-8.824012 -2.948864 42.412020 150 149 138 255
-8.056134 -6.384730 41.897240 109 59 50 255
7.279932 -4.877421 52.728530 134 85 76 255
-8.383266 -5.467775 42.102200 107 57 47 255
-5.237472 -10.214890 42.732120 107 67 55 255
-0.754458 3.844643 49.925150 128 66 55 255
-8.310638 -5.710248 41.956370 109 60 51 255
5.231461 -11.170080 49.535370 110 73 63 255
-8.832551 -3.365355 42.450240 114 72 63 255
7.396807 -5.433779 52.604810 133 84 73 255
7.409938 -5.577598 52.565160 122 69 57 255
-1.488640 3.943767 49.487610 128 64 52 255
7.378487 -5.747245 52.630740 122 66 53 255
-8.160383 -6.144773 42.020280 107 56 47 255
-5.743636 2.977644 46.276740 125 67 58 255
4.894917 -11.403390 49.289080 108 73 62 255
7.354928 -6.178894 52.368840 122 67 54 255
-8.000397 0.884669 44.125650 124 54 43 255
-8.698990 -3.693608 42.294440 104 52 40 255
-2.274308 4.072922 49.014980 129 60 48 255
-8.047503 0.717263 44.103110 122 57 44 255
-7.938572 -6.646039 41.865650 107 57 47 255
-2.436581 4.079152 48.945500 128 61 50 255
7.290985 -6.750940 52.269070 120 63 48 255
-8.157899 0.425771 43.814450 117 56 42 255
4.769366 -11.454720 48.993470 105 72 61 255
-2.613225 4.140260 48.737260 129 65 54 255
-2.727029 4.159024 48.601990 128 66 55 255
-7.613814 -7.187260 42.054790 108 56 45 255
-7.229031 -7.800555 42.065610 115 65 55 255
7.274590 -7.330517 52.125260 121 71 56 255
4.510187 -11.601180 48.956200 107 71 58 255
-8.203786 0.212474 43.787090 113 59 48 255
4.736674 0.059216 52.569380 132 67 54 255
-8.588857 -4.374452 42.181950 105 54 44 255
4.415344 -11.660940 48.711220 106 70 59 255
-7.460460 -7.424978 42.074050 111 57 47 255
-8.236269 0.104199 43.683110 102 74 67 255
4.238713 -11.792330 48.553920 100 76 69 255
7.249455 -7.702270 51.756200 124 69 53 255
-8.242987 -0.108392 43.604690 119 94 88 255
-3.260731 3.992882 48.196590 123 65 53 255
-8.241423 -0.204872 43.738040 124 90 86 255
7.128892 -8.076566 51.634770 122 67 50 255
-8.352310 -0.297972 43.480070 145 138 132 255
3.994138 -11.990330 48.351810 99 72 61 255
-3.535553 3.873893 48.070720 124 66 55 255
-8.516546 -0.627390 43.323200 149 144 137 255
-8.452858 -5.108539 42.058740 106 55 44 255
5.136374 -0.532483 52.825460 129 63 49 255
-3.826975 3.828562 47.769630 122 65 53 255
3.768263 -12.177820 48.123040 110 82 77 255
5.617818 -0.934462 52.832380 127 64 50 255
5.784344 -1.025899 52.746110 132 69 57 255
-2.258997 -12.033060 44.349720 102 48 33 255
3.251624 -12.361290 47.825880 101 61 50 255
-2.645271 -11.924480 44.110290 102 49 34 255
7.063969 -8.304586 51.467450 120 64 50 255
2.939507 -12.469930 47.695210 104 59 47 255
6.988627 -8.525877 51.396780 121 66 51 255
3.973856 0.925413 52.368430 129 62 49 255
-4.409257 -10.846840 43.360790 103 56 42 255
6.888448 -8.847873 51.209620 122 68 51 255
-3.641113 -11.349960 43.723270 104 57 44 255
2.534146 -12.600140 47.339940 106 60 47 255
-3.835192 -11.185730 43.566670 106 60 46 255
6.004557 -1.516654 52.799710 139 76 63 255
2.204436 -12.647090 47.035050 102 52 39 255
-4.664592 -10.611050 43.044090 103 56 42 255
-4.970492 -10.460880 42.960170 102 56 42 255
-5.070020 -10.338620 42.744230 104 59 46 255
-6.074919 2.687849 46.144790 128 68 59 255
-8.608960 -1.489423 43.297680 147 146 140 255
1.533367 -12.764720 46.662820 102 51 38 255
-6.503594 -8.726782 42.452490 104 52 40 255
1.162596 -12.864190 46.499850 104 53 38 255
6.424514 -3.018001 53.332420 131 69 57 255
2.100562 2.620516 51.592290 128 66 52 255
6.665625 -3.031717 52.986590 132 71 60 255
-4.457455 3.587803 47.427350 123 64 52 255
1.833574 2.777762 51.474040 130 68 56 255
0.889473 -12.987640 46.535310 104 55 41 255
0.847933 -12.924240 46.228340 104 52 40 255
-8.663824 -1.728254 43.051070 148 147 139 255
-6.288023 2.547481 45.980180 131 71 62 255
6.787834 -3.329627 53.002690 135 77 67 255
-4.752725 3.527303 47.161150 122 63 52 255
-5.844937 -9.477717 42.697040 105 53 39 255
0.158420 -12.899600 45.796960 107 50 36 255
-4.947565 3.401700 47.129840 127 71 61 255
1.264407 3.185102 51.076180 132 65 52 255
-6.443446 2.434387 45.891720 130 69 59 255
-8.694206 -1.985051 42.958380 147 145 137 255
6.542168 -9.770534 50.955060 118 64 48 255
-5.115634 3.312690 46.979740 124 67 58 255
6.468851 -9.907637 50.788990 115 66 51 255
-0.937764 -12.529430 45.227790 106 51 34 255
-5.425550 -10.014450 42.785080 111 67 55 255
-8.715330 -2.207677 42.962840 146 144 135 255
-1.453049 -12.321610 44.921850 105 48 32 255
-5.690077 2.933053 46.465840 123 67 57 255
-6.886980 2.085726 45.627190 128 63 53 255
-5.276772 -10.213870 42.850010 104 63 50 255
0.992518 3.340037 50.928190 133 66 55 255
-6.948341 2.099200 45.436780 127 61 51 255
7.229498 -5.043509 52.887980 132 85 76 255
-8.039025 -6.494737 42.088360 110 60 51 255
-7.048377 1.990798 45.333630 127 61 52 255
-8.793467 -2.922649 42.634630 152 149 137 255
-8.408540 -5.337830 42.192560 107 56 44 255
6.000709 -10.429980 50.312600 115 69 55 255
7.319413 -5.159970 52.733350 136 93 83 255
-7.341376 -7.629731 42.147290 114 61 49 255
2.207249 2.561240 51.637590 131 65 51 255
4.234148 0.637966 52.450410 135 66 53 255
-8.268789 -5.863880 42.082250 108 59 50 255
-0.126604 3.678596 50.544610 131 66 55 255
-1.785361 -12.177530 44.626330 102 48 32 255
7.369169 -5.881757 52.588230 122 66 52 255
-8.842325 -3.221040 42.438270 116 78 72 255
-0.170796 3.740656 50.403440 130 66 55 255
5.686195 -10.789530 50.237430 112 66 52 255
-0.431374 3.738001 50.280700 128 65 55 255
-7.961883 -6.667945 42.128840 108 59 48 255
-0.980540 3.872830 49.785400 128 65 53 255
-8.772492 -3.511007 42.454570 119 84 73 255
-7.450990 1.481449 44.930760 129 64 54 255
-7.858183 -6.862502 42.250850 107 57 45 255
-2.909096 -11.830180 43.991350 104 52 38 255
-2.820744 -11.889210 44.092290 104 50 35 255
7.273424 -7.040481 52.217330 118 61 47 255
-8.687389 -3.686168 42.536330 106 58 49 255
5.675941 -1.138853 52.972770 134 70 58 255
-3.161589 -11.708540 43.954020 101 53 39 255
7.256090 -7.556770 52.043370 121 69 54 255
5.364775 -0.761854 52.866220 127 61 46 255
-8.645731 -4.130702 42.363570 104 53 41 255
-7.732579 1.161067 44.637790 127 62 51 255
-8.676054 -3.813640 42.456290 106 52 42 255
4.877151 -0.277374 52.783470 129 63 49 255
-8.661592 -4.010771 42.624450 106 53 42 255
5.026481 -11.333820 49.503260 110 74 63 255
7.146072 -7.971016 51.839860 122 67 51 255
3.585309 1.234648 52.296650 129 63 50 255
3.724006 1.107969 52.334040 129 62 49 255
-4.146130 -11.049120 43.589980 106 57 44 255
-8.556391 -4.527073 42.331300 106 55 44 255
-2.587945 4.060437 48.902550 130 64 54 255
-7.922939 0.920852 44.408120 124 53 42 255
4.647878 -11.547180 49.243220 121 88 77 255
4.596558 -11.552840 49.038160 109 73 62 255
2.473401 2.421436 51.691650 134 63 49 255
-8.442485 -5.128464 42.296760 108 57 45 255
-5.168604 -10.327210 42.897070 107 64 52 255
-2.912455 4.046799 48.560490 122 64 52 255
4.282104 -11.792340 48.755910 96 77 68 255
-3.122101 3.950080 48.452350 125 66 55 255
4.018819 -11.986740 48.533420 95 68 59 255
-8.213700 0.014217 43.903100 105 62 53 255
3.890832 -12.079430 48.416180 108 71 66 255
3.785126 -12.161810 48.323010 121 84 80 255
-3.712083 3.765411 48.047320 123 65 53 255
3.624938 -12.267750 48.166180 124 106 99 255
-8.314344 -0.335808 43.676090 143 130 124 255
6.931038 -8.671782 51.450850 119 65 48 255
3.362176 -12.366210 48.027630 93 54 48 255
-8.394773 -0.489640 43.676200 145 137 132 255
-8.445473 -0.568608 43.578450 149 143 136 255
6.809753 -9.056773 51.255480 123 68 52 255
3.017011 -12.464960 47.804330 100 58 48 255
-8.510770 -0.722892 43.495560 148 143 137 255
-8.542269 -0.835134 43.455370 147 143 138 255
6.716390 -9.350738 51.074940 123 64 50 255
2.750072 -12.533820 47.519080 101 56 43 255
2.803318 1.905519 52.125340 128 64 50 255
-6.049512 2.608625 46.350750 127 68 59 255
6.618770 -9.549109 51.209140 120 62 48 255
-7.232644 -7.837708 42.304260 114 63 54 255
-7.125959 -8.045761 42.479630 115 65 57 255
5.900706 -1.787365 53.152380 137 74 63 255
-8.543831 -1.086975 43.555110 145 145 138 255
1.645972 2.800167 51.526340 132 67 54 255
6.463987 -9.879209 51.116440 115 62 47 255
1.121557 -12.948980 46.794650 102 51 37 255
-7.014872 -8.200698 42.433920 113 61 52 255
1.443535 2.993931 51.301700 131 65 51 255
-6.897649 -8.350717 42.474900 111 58 48 255
6.353913 -10.050130 50.699550 118 70 57 255
1.174083 3.148390 51.169040 136 68 56 255
-4.019538 3.631229 47.913020 123 64 52 255
6.218477 -2.543225 53.230660 133 69 56 255
-6.606509 2.287010 45.858690 130 67 58 255
0.716596 -13.043480 46.533980 106 53 39 255
0.697525 3.342509 50.991800 135 68 56 255
-6.767278 2.187838 45.711900 129 65 55 255
-8.638864 -1.805198 43.228960 149 146 140 255
0.628604 -12.997490 46.282590 104 50 37 255
0.374900 3.507467 50.805070 130 62 50 255
-6.767885 -8.470049 42.447630 106 51 39 255
0.090051 3.562082 50.768660 131 62 50 255
-6.709781 -8.599354 42.699180 105 51 39 255
-0.588774 -12.726120 45.578930 104 45 30 255
-4.262850 3.521081 47.826030 123 64 52 255
-4.378010 3.533004 47.651680 123 66 53 255
0.902689 3.251176 51.079470 132 67 53 255
-6.435893 -8.860184 42.690250 105 52 41 255
-0.251999 -12.837730 45.692910 105 48 34 255
6.713179 -3.219429 53.068520 139 83 73 255
5.379644 -11.081680 50.029770 109 69 56 255
-4.699339 3.464004 47.367400 123 64 52 255
-8.743047 -2.591176 42.931570 142 139 129 255
-4.909718 3.337868 47.323790 125 70 59 255
5.029697 -11.361580 49.697280 105 68 55 255
-7.598278 1.201952 44.949280 129 63 53 255
4.808648 -11.494580 49.540880 120 97 83 255
-6.162961 -9.115375 42.637760 104 53 40 255
-5.263153 -10.286550 43.042410 104 61 50 255
7.039822 -4.706258 53.117210 131 77 67 255
4.757926 -11.494960 49.336770 115 83 72 255
-8.105387 -6.379469 42.265750 109 60 49 255
6.775037 -3.818192 53.231670 130 75 65 255
-7.806223 1.004396 44.672020 127 56 45 255
4.514153 -11.650810 49.126250 114 85 73 255
-5.334870 2.984740 47.138100 120 65 55 255
-8.369766 -5.516936 42.328230 108 57 46 255
4.396707 -11.778800 49.022910 123 113 101 255
-8.307688 -5.769541 42.382010 110 59 49 255
4.250701 -11.900640 48.908690 119 110 104 255
-5.562863 -9.898096 42.978170 108 60 48 255
-8.229869 -6.012997 42.235600 110 60 51 255
-7.906615 0.682093 44.787530 119 51 40 255
-5.432211 3.017837 46.852250 119 65 54 255
-8.738213 -3.575320 42.648910 119 86 73 255
-8.673163 -3.719213 42.646510 104 54 45 255
-1.896022 3.997049 49.253080 129 63 50 255
-8.826414 -3.310852 42.780860 112 73 66 255
-8.063787 0.434485 44.257240 117 55 45 255
4.046642 -12.028740 48.718360 147 141 127 255
-5.650896 2.884224 46.636640 125 68 57 255
-8.819363 -3.416406 42.608750 113 76 63 255
3.930827 -12.105000 48.608760 120 115 98 255
-7.961393 -6.718018 42.369160 109 57 46 255
7.320000 -5.639473 52.826370 124 75 64 255
3.799406 -12.186950 48.490940 127 120 110 255
-8.192742 0.022482 44.026880 114 57 46 255
3.691215 -12.252970 48.408730 129 124 117 255
-8.664885 -3.864085 42.668260 108 52 45 255
3.561924 -12.318350 48.321790 142 131 125 255
4.074609 0.757397 52.481450 131 64 50 255
-7.517067 -7.398126 42.559650 112 58 47 255
-3.455896 -11.520970 43.885980 104 58 44 255
3.453766 -12.350830 48.222600 126 114 106 255
-8.216609 -0.161193 44.107550 107 54 44 255
-3.413960 -11.595050 44.020370 101 55 41 255
-8.630529 -4.188698 42.547490 107 55 44 255
-8.235863 -0.261771 43.934420 119 85 78 255
3.292622 -12.413230 48.100690 118 100 92 255
-8.280964 -0.382399 43.882000 127 102 96 255
-2.708520 4.032910 48.849010 127 67 55 255
3.027204 -12.530250 48.055470 123 107 95 255
-2.888776 3.966933 48.750400 124 65 54 255
4.328164 0.321274 52.680730 125 59 44 255
7.230183 -6.689037 52.573730 120 64 50 255
-3.053691 3.868337 48.704720 124 64 53 255
-8.416361 -0.697140 43.916150 146 140 135 255
2.514903 -12.665020 47.569500 104 58 45 255
-8.510271 -4.766733 42.475340 106 55 45 255
-3.405101 3.815603 48.342570 123 65 53 255
2.183435 -12.707560 47.266900 102 52 39 255
-2.473280 -12.029470 44.475400 102 49 34 255
1.835450 -12.780180 47.155110 101 52 38 255
-2.788141 -11.948570 44.302450 104 50 35 255
5.579361 -1.105686 53.053490 129 68 54 255
7.231445 -7.519755 52.190450 122 73 59 255
7.202351 -7.643092 52.210890 119 69 53 255
7.094368 -8.009214 52.177910 122 68 52 255
-4.365786 -10.985780 43.668800 109 61 47 255
6.876668 -8.678184 51.915390 118 63 47 255
6.972981 -8.491761 51.681400 116 61 44 255
6.904405 -8.679855 51.673080 117 62 46 255
6.823370 -8.947680 51.532380 121 66 49 255
6.758040 -9.164474 51.364200 121 66 49 255
-4.932940 -10.633710 43.386050 102 55 42 255
2.539835 2.257441 51.870490 132 61 47 255
-4.778439 -10.739500 43.502530 102 55 41 255
6.691353 -9.326233 51.399280 121 65 48 255
2.337348 2.381601 51.828710 133 62 48 255
-5.107235 -10.426070 43.049580 108 62 51 255
2.943439 1.629606 52.355260 130 65 52 255
5.962198 -2.037338 53.232930 136 73 60 255
1.461730 -12.874120 47.035550 104 54 41 255
-7.313765 -7.735888 42.574070 114 61 50 255
-7.158883 -8.044009 42.834720 114 66 57 255
-5.955395 2.608037 46.548270 126 68 58 255
-8.496035 -0.985575 43.765880 145 144 138 255
-3.674469 3.664302 48.297080 124 64 53 255
1.752702 2.693451 51.659890 131 66 52 255
6.516075 -9.756452 51.286790 115 56 40 255
-7.000987 -8.264167 42.626030 114 63 52 255
6.128440 -2.374538 53.225420 133 69 57 255
-6.881716 -8.443472 42.739260 111 60 49 255
-3.946384 3.576390 48.122040 124 64 52 255
-8.578129 -1.558574 43.495960 150 149 141 255
1.394073 2.928711 51.424510 135 69 56 255
-6.296540 2.410547 46.238000 128 69 60 255
1.052323 3.126227 51.228240 135 68 56 255
6.422327 -2.778907 53.122720 131 69 57 255
6.338029 -10.054000 51.252410 120 66 52 255
0.492470 -13.003630 46.249410 107 51 38 255
6.252112 -10.169040 51.115720 117 67 52 255
0.263767 3.299500 51.113700 134 67 54 255
-8.607922 -1.762377 43.426240 149 147 139 255
-6.595145 -8.794961 43.031870 107 53 41 255
6.171721 -10.261490 50.954480 118 69 54 255
0.024912 -12.948780 46.054160 104 48 34 255
6.686310 -3.422540 53.255870 133 75 64 255
-5.740406 -9.735724 43.172790 105 53 40 255
-8.687704 -2.175583 43.247940 146 144 136 255
6.727356 -3.547571 53.234420 133 76 65 255
-4.664800 3.377105 47.602700 122 63 50 255
-6.278074 -9.082504 42.945110 104 51 39 255
-5.896869 -9.457902 42.839630 106 53 40 255
5.837378 -10.624730 50.514930 112 66 52 255
-0.886714 -12.626930 45.590920 100 45 29 255
-4.871063 3.274450 47.517960 127 71 62 255
6.910986 -4.614778 53.313850 131 76 66 255
-8.716968 -2.469067 43.195760 144 142 134 255
-6.717617 2.042949 46.110710 131 66 57 255
-1.235837 -12.544240 45.655030 106 50 34 255
-0.356126 3.522480 50.792160 129 66 54 255
7.082601 -4.940087 53.139200 127 76 64 255
-5.076485 3.215206 47.256010 125 69 60 255
-5.462152 -10.106070 43.267210 107 64 53 255
-7.005560 1.899726 45.607790 127 61 51 255
-5.384742 -10.156520 43.094670 109 66 54 255
-8.781657 -2.965704 42.828080 150 147 135 255
-8.331803 -5.671668 42.481090 110 58 48 255
5.560323 -10.916980 50.117640 109 65 52 255
-8.226910 -6.106162 42.686660 111 61 51 255
-7.270602 1.585849 45.303960 125 60 51 255
-8.169469 -6.258377 42.486300 104 56 45 255
-1.122826 3.673956 50.112760 128 67 56 255
-3.309479 -11.707220 44.155290 105 58 45 255
7.252800 -5.494521 52.979850 129 83 74 255
-8.046958 -6.550735 42.376320 114 62 52 255
-1.891502 -12.278370 45.146180 104 50 34 255
-8.809319 -3.452060 42.779050 115 74 59 255
-8.691984 -3.647517 42.832730 114 72 61 255
-1.870015 3.772427 49.654550 128 61 49 255
-8.663815 -3.760322 42.781530 105 52 42 255
7.288753 -5.823836 52.932150 120 67 55 255
7.272016 -5.977895 52.955280 119 65 51 255
7.258461 -6.267820 52.746110 120 67 53 255
-2.403036 -12.109840 44.820800 100 48 32 255
5.104198 -11.333290 49.910590 92 62 52 255
-2.405778 3.794667 49.461800 129 62 49 255
-2.506660 3.913491 49.212910 129 63 50 255
-2.727468 -12.011390 44.528960 100 47 32 255
-3.037914 -11.878510 44.326250 102 52 36 255
-2.822719 3.877788 49.016510 126 66 55 255
7.183207 -7.078905 52.580440 115 64 48 255
7.147996 -7.535448 52.577620 117 68 55 255
-8.585340 -4.404943 42.698030 106 55 45 255
4.661266 -11.591810 49.425540 120 95 81 255
7.138149 -7.846949 52.242600 120 68 53 255
-3.932065 -11.344710 44.068420 107 58 45 255
-3.272662 3.742646 48.660050 124 64 53 255
-4.072987 -11.292380 44.106120 106 58 44 255
4.551404 -11.716720 49.386810 115 90 80 255
-7.868072 0.841436 44.717670 121 53 42 255
7.065987 -8.138864 52.001160 121 66 50 255
-3.565296 3.630237 48.508560 124 63 52 255
-8.466434 -4.983101 42.624910 108 55 45 255
4.412014 -11.819920 49.183390 113 108 94 255
3.240159 1.397364 52.382860 127 63 49 255
4.337656 -11.880870 49.138780 116 107 99 255
5.483928 -1.020450 53.055480 126 63 48 255
-7.982588 0.571244 44.555940 117 52 40 255
-8.418405 -5.248876 42.539660 107 54 43 255
5.663517 -1.289669 53.130650 130 68 54 255
4.189314 -11.973070 48.994250 144 142 132 255
2.607066 2.049143 52.107370 131 63 50 255
5.307462 -0.844897 53.012610 128 62 46 255
-8.056120 0.256019 44.499610 116 53 42 255
3.938021 -12.157380 48.794170 143 143 130 255
-8.123481 0.056970 44.360920 116 55 43 255
6.906893 -8.559669 52.064120 121 67 50 255
3.848366 -12.226070 48.696740 147 141 130 255
-5.201755 -10.409220 43.200570 106 62 51 255
-5.144371 -10.516500 43.360030 109 65 53 255
3.734242 -12.312110 48.594890 131 127 116 255
-8.187511 -0.143079 44.296940 110 52 41 255
3.621153 -12.371170 48.501460 129 123 116 255
3.496690 -12.391530 48.414000 133 128 116 255
-8.234221 -0.336516 44.085960 121 76 67 255
3.377771 -12.406130 48.330700 130 113 103 255
3.225687 -12.466140 48.285960 125 109 98 255
-8.266099 -0.450872 44.063390 136 103 97 255
-8.304868 -0.570882 44.113850 152 133 127 255
5.692409 -1.526562 53.284040 134 71 57 255
2.866879 -12.611910 48.083260 107 78 69 255
2.734144 -12.641540 47.909230 99 65 54 255
-8.439322 -0.821440 43.946510 146 143 137 255
2.385580 -12.720620 47.619140 104 61 47 255
1.757241 -12.861340 47.441400 106 56 43 255
-8.547164 -1.567611 43.724890 150 148 140 255
-3.807762 3.525793 48.407790 124 63 52 255
-6.253993 2.358065 46.426430 130 70 61 255
2.028421 2.350297 52.040060 132 61 48 255
1.922444 2.548860 51.805260 130 65 50 255
-8.642972 -2.020700 43.478650 148 146 138 255
-6.982589 -8.334030 42.811070 116 65 55 255
-4.233096 3.442561 48.039800 123 65 53 255
5.895517 -2.334721 53.550540 138 74 61 255
-7.075438 -8.196445 42.859610 115 66 57 255
-4.594357 3.301103 47.868890 124 64 52 255
0.579654 -13.079230 46.574030 107 51 37 255
5.972273 -10.474690 50.739660 117 67 55 255
1.633605 2.692971 51.703220 132 67 53 255
0.281986 -13.018490 46.305810 109 53 39 255
-6.581514 2.134793 46.227340 128 65 55 255
1.247315 2.899789 51.499110 135 69 57 255
-0.490682 -12.824630 45.945880 104 47 30 255
0.936174 2.884198 51.551870 134 68 55 255
6.446585 -3.185827 53.448900 129 70 58 255
1.429961 2.799241 51.594830 136 70 58 255
-8.773430 -3.042679 43.120920 150 150 140 255
-5.042081 3.157858 47.440140 124 68 58 255
-0.157925 -12.924660 46.097290 106 48 33 255
6.543232 -3.284777 53.386320 132 73 61 255
-0.020199 3.486433 50.904580 134 65 53 255
-6.855995 1.952214 45.932300 128 62 52 255
0.953241 2.995430 51.407880 135 67 55 255
-8.797988 -3.293621 43.198870 124 107 101 255
0.718452 3.105250 51.300170 134 68 55 255
5.620500 -10.892900 50.585530 107 62 48 255
-8.808407 -3.394923 43.063700 110 73 65 255
-8.768377 -3.523290 42.989110 109 75 62 255
-5.637363 2.708992 47.010350 126 68 58 255
-8.689320 -3.672485 42.998440 115 72 61 255
5.378701 -11.132200 50.347160 112 68 54 255
-8.676841 -3.820389 42.987940 106 52 43 255
-5.759356 2.702396 46.765550 121 64 54 255
-8.678264 -3.967300 42.955710 107 52 43 255
3.808939 0.649258 52.872910 130 62 49 255
5.121220 -11.358620 50.136600 88 57 47 255
-8.656766 -4.127094 42.911180 106 54 43 255
6.903623 -4.385167 53.222560 132 77 66 255
-0.174196 3.510607 50.865990 130 64 52 255
-8.553611 -4.610991 42.939800 106 54 43 255
4.363145 0.098667 52.885300 124 60 46 255
-7.469156 -7.503471 42.804550 112 58 48 255
-8.309676 -5.759388 42.869340 106 54 43 255
4.942913 -11.453800 49.954440 119 89 76 255
-8.514068 -4.780633 42.786230 105 54 43 255
-0.656190 3.590866 50.500390 126 66 55 255
-8.286310 -5.863727 42.635250 109 58 48 255
4.802460 -11.517650 49.705490 119 92 80 255
4.784048 -0.349749 52.950280 129 63 49 255
4.972820 -0.589244 53.044770 127 61 47 255
5.091285 -0.753471 53.121530 127 61 47 255
-5.633722 -9.915204 43.371960 99 50 39 255
4.724825 -11.585920 49.637720 118 94 81 255
5.493415 -1.439766 53.496410 131 69 56 255
7.078445 -5.239470 53.284700 124 78 67 255
4.593509 -11.717570 49.525280 115 93 79 255
-8.186562 -6.268616 42.828430 109 60 50 255
7.169892 -5.373019 53.141670 130 86 77 255
-8.015637 -6.657059 42.646240 113 61 50 255
7.019755 -8.190163 52.263610 120 65 49 255
-3.253819 -11.795360 44.311390 99 51 37 255
7.223144 -5.843050 53.135430 121 68 57 255
-7.902765 -6.838470 42.561410 111 59 47 255
3.741519 0.810542 52.736480 134 66 55 255
-3.694820 -11.483760 44.130490 101 55 41 255
4.167463 -12.022730 49.281950 143 139 126 255
-2.677500 3.814778 49.284750 129 65 53 255
-2.744754 3.851509 49.156460 129 68 55 255
6.732812 -9.141798 51.720270 120 66 49 255
4.017264 -12.109270 49.013880 143 141 130 255
-2.992960 3.764303 49.008190 125 65 53 255
7.199673 -6.607295 52.757960 121 67 54 255
-7.956877 0.497005 44.763390 117 51 39 255
6.648100 -9.375455 51.690800 117 61 45 255
6.603889 -9.515220 51.508130 122 64 48 255
3.759482 -12.329220 48.801060 139 141 129 255
6.520164 -9.702344 51.502400 117 59 43 255
3.651335 -12.419330 48.684200 125 121 110 255
-2.902714 -11.995440 44.630170 98 50 31 255
3.517045 -12.487940 48.612180 131 124 116 255
3.420894 -12.481590 48.512220 132 124 114 255
7.153033 -7.617923 52.514280 123 74 60 255
3.242942 -12.534600 48.505580 130 116 105 255
3.150351 -12.527630 48.420550 128 111 101 255
3.021600 -12.575590 48.331800 118 102 91 255
-8.228930 -0.356733 44.362720 111 53 42 255
2.836413 -12.668770 48.287300 127 110 100 255
-8.270209 -0.553756 44.293790 122 84 78 255
2.976138 1.462756 52.528190 128 63 49 255
2.434653 -12.762380 47.876540 107 61 50 255
-5.009653 -10.660190 43.550020 101 59 46 255
1.714898 -12.943760 47.808330 101 54 41 255
-6.386405 -9.047476 43.197200 106 53 41 255
1.332750 -12.993490 47.406780 101 51 37 255
6.367611 -9.991251 51.519690 117 62 46 255
-6.128190 2.346003 46.705250 129 71 61 255
1.028542 -13.066190 47.203250 100 51 36 255
-8.459016 -1.095824 44.048850 148 145 138 255
-8.513456 -1.487657 43.921450 150 148 138 255
2.494541 1.947292 52.311040 132 62 50 255
2.321041 2.157525 52.154050 131 60 45 255
-4.131816 3.367706 48.331100 125 65 53 255
-6.990781 -8.364496 43.009800 117 67 57 255
-6.893937 -8.486156 42.958690 112 59 49 255
0.834270 -13.126230 47.097460 103 52 38 255
5.909472 -10.563200 51.040990 122 70 55 255
0.804155 -13.087290 46.844670 103 52 38 255
-7.324423 -7.763574 42.980820 116 61 50 255
-8.599053 -1.913183 43.734550 149 147 138 255
-4.429130 3.281424 48.131860 124 64 53 255
2.144848 2.200148 52.192480 133 61 45 255
5.767880 -10.721130 50.875100 116 66 51 255
0.109910 -13.019070 46.397890 109 52 37 255
-6.784146 -8.591833 42.927730 107 56 44 255
-4.777582 3.158780 47.904410 126 70 60 255
6.262544 -2.884591 53.445740 134 68 57 255
-4.819987 3.218826 47.717410 127 71 61 255
5.515994 -11.001940 50.424390 116 69 56 255
-4.955745 3.103749 47.711830 129 72 62 255
6.118390 -2.802540 53.589320 133 69 56 255
-8.679500 -2.300169 43.463620 147 145 136 255
-5.778573 -9.745058 43.378690 102 52 39 255
1.815383 2.487740 51.936170 131 62 48 255
-5.416706 2.812325 47.309820 122 67 56 255
-8.713768 -2.567499 43.466380 147 146 138 255
-6.056759 -9.363686 43.116530 102 50 37 255
1.635495 2.519843 51.931940 137 66 55 255
-6.964149 1.776708 45.917640 129 62 52 255
1.431154 2.677962 51.759130 135 68 56 255
5.004676 -11.437170 50.041340 120 88 77 255
-1.890429 -12.400660 45.654910 104 50 33 255
4.885951 -11.485920 49.948330 117 88 75 255
6.755459 -4.088060 53.364730 130 74 63 255
1.197896 2.782499 51.645530 136 68 56 255
-1.415915 -12.506180 45.680520 104 49 33 255
4.772568 -11.570350 49.845900 117 92 78 255
4.660347 -11.696610 49.728820 122 96 82 255
3.895449 0.422564 53.034840 132 63 49 255
-5.483355 -10.163340 43.545440 104 62 52 255
-8.749316 -2.953543 43.371810 151 149 138 255
-3.498212 -11.672110 44.356630 105 58 45 255
-5.293524 -10.371330 43.367350 107 63 53 255
4.525989 -11.797350 49.621780 104 88 74 255
-7.220200 1.418205 45.706220 129 62 52 255
4.345870 -11.904610 49.461190 140 134 121 255
-2.388210 -12.179090 45.106940 102 50 32 255
6.904418 -4.840214 53.431660 130 77 66 255
0.393750 3.117494 51.324770 135 68 56 255
4.069997 -12.115620 49.369730 140 140 129 255
-7.417775 1.039928 45.714900 129 63 52 255
3.875609 -12.237530 49.044940 142 140 128 255
-8.729369 -3.600279 43.189360 109 75 65 255
5.307370 -1.119033 53.368400 128 65 51 255
5.457340 -1.341964 53.457090 131 70 57 255
-8.699727 -3.712291 43.145490 112 65 56 255
-8.689810 -3.976964 43.073760 106 52 41 255
5.105347 -0.954046 53.362850 127 61 47 255
-7.715069 0.704514 45.381040 130 60 49 255
-4.586956 -10.900830 43.707260 102 54 40 255
3.337742 -12.576730 48.657930 123 112 101 255
-8.122316 -6.443452 42.807470 113 62 52 255
4.727173 -0.394448 53.062390 127 61 47 255
-8.077594 -6.553208 42.821330 113 62 52 255
7.166269 -5.670110 53.247680 124 79 69 255
-4.266694 -11.172300 44.050500 106 58 45 255
-7.790185 0.731440 45.119740 127 54 42 255
-8.613306 -4.351665 43.043640 105 53 43 255
3.448731 0.992630 52.734950 129 61 49 255
3.344350 1.128480 52.649970 133 66 54 255
-7.943858 -6.810161 42.917370 112 58 47 255
-7.755910 -7.087908 42.937440 113 57 47 255
2.707209 -12.729140 48.213210 127 104 92 255
7.200687 -6.179218 53.120060 121 69 54 255
-0.924310 3.473165 50.617300 122 64 52 255
7.157888 -6.508007 53.045320 122 69 56 255
2.566075 -12.771810 48.140780 91 58 47 255
-7.631130 -7.242820 42.687520 112 57 47 255
-8.491343 -4.878408 42.966740 107 55 44 255
-7.907336 0.471809 45.046300 119 52 42 255
-8.417350 -5.226252 42.780120 108 55 45 255
5.632567 -1.736052 53.522990 135 73 60 255
-1.421456 3.535300 50.279930 124 64 51 255
-8.374416 -5.417147 42.909570 107 55 45 255
-5.234956 -10.482240 43.506630 104 60 51 255
-1.664391 3.651831 49.955510 127 63 52 255
-5.854853 2.526668 46.919730 127 68 58 255
7.153041 -7.126915 52.680620 115 62 47 255
-8.041690 0.152253 44.718350 116 53 42 255
-8.157963 -0.192072 44.532080 115 52 41 255
-2.603812 3.774515 49.410100 128 62 50 255
7.111623 -7.783496 52.574490 120 70 56 255
6.951779 -8.359675 52.353390 123 69 53 255
7.065233 -7.976358 52.538980 122 69 53 255
-8.294108 -0.676847 44.320590 128 98 94 255
-8.338088 -0.766513 44.231350 151 146 139 255
6.756472 -9.019515 51.962570 122 68 51 255
-8.408164 -0.945524 44.145260 144 140 133 255
-3.210064 3.658644 48.917480 123 64 52 255
-3.504915 3.545454 48.761590 124 63 52 255
-6.419835 2.126009 46.567500 130 69 60 255
-8.577679 -1.944223 43.956280 151 148 138 255
5.675601 -2.129233 53.731620 132 69 56 255
-7.561194 -7.391121 43.150780 113 58 46 255
1.978403 2.277281 52.163560 134 64 51 255
6.181798 -10.262670 51.466950 120 67 53 255
-6.620608 -8.857998 43.343200 110 56 43 255
5.919071 -2.619554 53.729280 131 68 55 255
-8.685596 -2.458956 43.690990 149 147 138 255
-6.671184 1.993703 46.308300 130 65 56 255
2.183883 2.083608 52.325350 134 63 49 255
-6.794474 1.884917 46.200130 130 64 54 255
2.630554 1.814179 52.371670 134 64 52 255
-6.907850 1.722177 46.150110 129 62 53 255
-7.076913 -8.247358 43.151200 118 67 57 255
-5.044733 2.913175 47.896940 125 68 58 255
0.653887 -13.125830 46.835370 105 52 38 255
-8.776634 -3.195164 43.436160 146 139 133 255
-5.191385 2.907171 47.608420 125 67 57 255
0.534872 -13.123670 46.756840 109 54 39 255
-6.865538 -8.593854 43.251770 113 61 50 255
6.500368 -3.509924 53.626850 131 75 63 255
0.374509 -13.104920 46.671370 107 52 39 255
-8.787478 -3.338132 43.364510 118 84 74 255
-7.256043 -7.906192 43.160100 116 59 49 255
6.585425 -3.645232 53.557370 132 75 64 255
-8.776655 -3.461626 43.289090 108 65 59 255
-0.149949 -12.964630 46.438690 109 49 35 255
-8.722078 -3.622938 43.340150 115 74 63 255
-0.467866 -12.861920 46.171150 103 46 31 255
6.735409 -4.380326 53.536840 129 73 62 255
-5.698267 2.580931 47.131900 124 67 57 255
5.473135 -11.080180 50.699600 115 67 53 255
-8.713962 -3.809452 43.412760 107 53 45 255
-6.747082 -8.695371 43.182820 112 58 46 255
-8.702233 -3.935471 43.342960 105 52 42 255
-8.669752 -4.137264 43.181390 106 52 43 255
-0.823853 -12.700550 45.859680 97 43 26 255
4.328429 -0.043536 53.085960 121 58 43 255
-0.035046 3.278922 51.192840 135 66 54 255
6.946009 -5.117629 53.491990 123 74 61 255
5.108334 -11.429840 50.405820 103 65 51 255
0.646391 2.868491 51.604890 134 68 57 255
-8.565729 -4.585199 43.217440 108 54 45 255
-6.203215 -9.314098 43.480670 105 55 42 255
-8.454689 -5.045351 43.133950 106 54 44 255
7.061537 -5.498257 53.433600 128 82 72 255
5.047432 -11.448060 50.241240 101 65 56 255
4.784954 -0.671942 53.350820 127 61 47 255
7.183533 -6.104367 53.245260 119 66 53 255
4.925325 -11.509500 50.148990 121 89 78 255
-7.850024 0.552661 45.178580 123 53 41 255
4.808179 -11.577370 50.043280 117 89 75 255
5.111038 -1.240279 53.753170 131 70 57 255
5.264657 -1.356928 53.708100 129 68 56 255
-7.967867 0.298056 44.967460 117 53 41 255
4.671014 -11.745440 49.950800 117 90 79 255
4.573417 -11.798720 49.824860 115 94 81 255
1.723564 2.413612 52.049110 137 64 53 255
-8.043820 0.005214 44.905720 115 52 41 255
4.437470 -11.878190 49.748550 99 87 79 255
6.988800 -8.193344 52.606210 122 69 53 255
-5.667525 -9.978510 43.720390 99 51 38 255
-8.104142 -0.187551 44.809390 117 53 43 255
7.104723 -7.010885 52.983380 123 67 53 255
4.292555 -11.985200 49.716130 138 132 120 255
-0.283773 3.265335 51.232510 135 67 54 255
6.859414 -8.632286 52.330120 120 66 49 255
6.827896 -8.749274 52.199920 118 64 48 255
-3.242591 -11.864730 44.525260 99 50 36 255
3.564018 0.722311 53.006240 133 66 54 255
-0.587677 3.277732 51.179020 129 65 54 255
7.057787 -7.758440 52.919320 123 74 59 255
-8.220243 -0.459618 44.588940 115 55 43 255
-3.457289 -11.771600 44.592740 104 58 44 255
-8.256833 -0.625122 44.616150 117 55 45 255
6.675932 -9.253124 51.979550 118 63 47 255
-8.315041 -0.801935 44.360320 135 122 116 255
-5.296313 -10.443170 43.622710 103 60 51 255
2.992910 1.299737 52.705530 132 64 51 255
-8.343449 -0.970927 44.362830 153 149 143 255
6.553885 -9.578020 51.853990 116 60 43 255
3.815798 -12.347510 49.371870 140 139 129 255
-8.356363 -1.133192 44.442840 140 134 130 255
6.430578 -9.862336 51.691510 115 60 43 255
3.708141 -12.421080 49.145390 139 140 128 255
-8.448293 -1.253416 44.208250 148 146 139 255
-2.716454 -12.124540 45.083800 101 50 32 255
-7.440653 -7.569158 42.988150 114 58 47 255
3.594735 -12.516870 49.035680 139 137 127 255
-8.478705 -1.496076 44.218240 149 147 138 255
6.271110 -10.139990 51.594970 119 63 47 255
3.460976 -12.596720 48.968240 138 135 124 255
-1.452337 3.432496 50.471810 124 64 52 255
-3.117385 -12.004350 44.876450 98 47 30 255
3.116002 -12.662880 48.706470 129 113 103 255
-3.242287 -11.942130 44.789880 103 52 37 255
3.031056 -12.619770 48.562300 129 110 100 255
-2.118493 3.625755 49.858380 127 62 50 255
2.866672 -12.671800 48.531700 128 111 100 255
-4.485156 -11.077420 44.067500 102 55 42 255
-2.330638 3.635371 49.766000 129 62 51 255
-8.250371 -6.043879 43.070570 109 58 47 255
-4.663663 -10.968200 43.989040 105 58 45 255
-2.545509 3.590328 49.745430 128 62 50 255
2.158770 -12.836350 47.888070 104 54 44 255
-2.798508 3.619056 49.524690 130 66 55 255
-2.913925 3.690139 49.266440 126 65 53 255
-3.172936 3.595857 49.097920 123 64 52 255
-4.926979 -10.769210 43.749640 102 55 43 255
-5.161855 -10.593650 43.641770 108 63 53 255
-5.072113 -10.683830 43.731400 106 64 52 255
-3.386916 3.488753 49.029320 124 63 52 255
-4.956150 -10.855230 44.028020 102 55 44 255
-3.773892 3.399568 48.727860 124 63 52 255
-4.312762 3.156193 48.554320 124 64 54 255
5.505683 -2.069380 53.940820 133 73 60 255
-4.105640 3.256586 48.609490 124 64 52 255
-6.475560 2.006105 46.694050 129 67 57 255
-6.350608 2.065472 46.820840 129 69 60 255
-8.584653 -2.141200 44.171560 149 147 137 255
-4.440380 3.167584 48.368200 126 65 55 255
1.860787 2.252065 52.224910 135 63 51 255
-8.649920 -2.382556 43.919300 150 147 138 255
1.983426 2.088838 52.391650 137 65 52 255
